ply
format ascii 1.0
comment VCGLIB generated
element vertex 1111
property float x
property float y
property float z
property uchar red
property uchar green
property uchar blue
property uchar alpha
element face 0
property list uchar int vertex_indices
end_header
3.16616 0.02131 0.457261 192 192 192 255 
3.19957 -0.153739 0.38015 192 192 192 255 
3.28643 -0.300744 0.276331 192 192 192 255 
3.34216 -0.384674 0.201349 192 192 192 255 
2.36109 1.76666 0.202595 192 192 192 255 
2.40697 1.64533 0.341479 192 192 192 255 
2.51903 1.48593 0.422962 192 192 192 255 
2.55387 1.28428 0.512335 192 192 192 255 
2.63746 1.01726 0.581611 192 192 192 255 
2.74794 0.712253 0.615674 192 192 192 255 
2.8115 0.469098 0.657443 192 192 192 255 
2.89873 0.271916 0.651298 192 192 192 255 
2.91987 0.084875 0.64246 192 192 192 255 
2.95303 -0.12769 0.520499 192 192 192 255 
2.98641 -0.413503 0.428964 192 192 192 255 
3.05314 -0.609681 0.326931 192 192 192 255 
3.10753 -0.691019 0.264602 192 192 192 255 
2.13239 1.75582 0.180271 192 192 192 255 
2.183 1.65407 0.341767 192 192 192 255 
2.30136 1.39772 0.546015 192 192 192 255 
2.39635 1.24224 0.597722 192 192 192 255 
2.54244 0.999928 0.648592 192 192 192 255 
2.67945 0.687427 0.720573 192 192 192 255 
2.75316 0.400829 0.713141 192 192 192 255 
2.79068 0.219187 0.718263 192 192 192 255 
2.79066 0.044324 0.717488 192 192 192 255 
2.74399 -0.129852 0.718277 192 192 192 255 
2.7362 -0.346225 0.659345 192 192 192 255 
2.68813 -0.517509 0.672975 192 192 192 255 
2.64737 -0.61155 0.669485 192 192 192 255 
2.51416 0.988713 0.674527 192 192 192 255 
2.60422 0.728827 0.769671 192 192 192 255 
2.70696 0.393597 0.849582 192 192 192 255 
2.73151 0.219003 0.891585 192 192 192 255 
2.73418 0.038769 0.86581 192 192 192 255 
2.70258 -0.197406 0.795611 192 192 192 255 
2.69058 -0.368057 0.819343 192 192 192 255 
2.61831 -0.549092 0.805491 192 192 192 255 
2.5392 -0.727778 0.750475 192 192 192 255 
2.48292 0.997637 0.702425 192 192 192 255 
2.5704 0.738683 0.830405 192 192 192 255 
2.616 0.447717 0.960748 192 192 192 255 
2.66894 0.206182 1.01437 192 192 192 255 
2.64941 0.031535 1.0248 192 192 192 255 
2.60743 -0.208248 0.974218 192 192 192 255 
2.5945 -0.422948 0.981263 192 192 192 255 
2.54337 -0.548031 0.937182 192 192 192 255 
2.41037 -0.777999 0.841105 192 192 192 255 
2.09655 1.67848 0.32681 192 192 192 255 
2.18985 1.46899 0.517501 192 192 192 255 
2.266 1.27325 0.663332 192 192 192 255 
2.34732 1.06611 0.758763 192 192 192 255 
2.39939 0.782091 0.915279 192 192 192 255 
2.44897 0.529858 1.03734 192 192 192 255 
2.49535 0.250522 1.13208 192 192 192 255 
2.50049 -0.035029 1.17018 192 192 192 255 
2.45259 -0.244072 1.1388 192 192 192 255 
2.43983 -0.395385 1.13132 192 192 192 255 
2.38464 -0.591919 1.04306 192 192 192 255 
2.34608 -0.74535 1.0133 192 192 192 255 
2.24562 -0.864372 0.995778 192 192 192 255 
1.80758 1.75655 0.177627 192 192 192 255 
1.79872 1.71445 0.259352 192 192 192 255 
1.82195 1.61821 0.403751 192 192 192 255 
1.85944 1.45039 0.632222 192 192 192 255 
1.95825 1.13027 0.861813 192 192 192 255 
1.97594 0.827957 1.01842 192 192 192 255 
2.02344 0.529338 1.1444 192 192 192 255 
2.0817 0.283249 1.25946 192 192 192 255 
2.14179 -0.055306 1.29557 192 192 192 255 
2.13627 -0.187666 1.27806 192 192 192 255 
2.10891 -0.357128 1.25969 192 192 192 255 
2.01353 -0.662303 1.19149 192 192 192 255 
1.46251 1.74548 0.222394 192 192 192 255 
1.48383 1.69759 0.288781 192 192 192 255 
1.49714 1.61893 0.401108 192 192 192 255 
1.50495 1.48349 0.585976 192 192 192 255 
1.51713 1.33437 0.741076 192 192 192 255 
1.57069 0.938327 0.989108 192 192 192 255 
1.5822 0.771083 1.06818 192 192 192 255 
1.63008 0.420236 1.17237 192 192 192 255 
1.64903 0.224458 1.21197 192 192 192 255 
1.66035 0.019397 1.246 192 192 192 255 
1.66416 -0.189659 1.26673 192 192 192 255 
1.67862 -0.410061 1.29118 192 192 192 255 
1.64009 -0.674556 1.2468 192 192 192 255 
1.64418 -0.857872 1.20849 192 192 192 255 
2.22935 -0.992723 0.862826 192 192 192 255 
2.29245 -0.871852 0.8824 192 192 192 255 
2.40731 -0.97498 0.805091 192 192 192 255 
2.52042 -0.954785 0.739445 192 192 192 255 
2.63766 -0.768176 0.637039 192 192 192 255 
2.66928 -0.930664 0.557166 192 192 192 255 
2.51417 -1.07772 0.706614 192 192 192 255 
2.38647 -1.11607 0.761367 192 192 192 255 
2.18001 -1.13056 0.821812 192 192 192 255 
2.35429 -1.19375 0.735189 192 192 192 255 
2.15805 -1.20961 0.783941 192 192 192 255 
2.31879 -1.29409 0.673863 192 192 192 255 
2.12624 -1.33017 0.721011 192 192 192 255 
2.27453 -1.43349 0.567366 192 192 192 255 
2.48653 -1.27497 0.627822 192 192 192 255 
2.45706 -1.40096 0.539866 192 192 192 255 
2.54932 -1.33521 0.535156 192 192 192 255 
2.61797 -1.2356 0.520238 192 192 192 255 
2.51084 -1.15879 0.678057 192 192 192 255 
2.67025 -1.10837 0.544018 192 192 192 255 
2.71072 -0.830091 0.532493 192 192 192 255 
2.85767 -0.930625 0.391195 192 192 192 255 
2.75795 -1.09996 0.471684 192 192 192 255 
2.84736 -1.10381 0.402301 192 192 192 255 
2.80374 -1.25587 0.438328 192 192 192 255 
2.74089 -1.33923 0.463604 192 192 192 255 
2.66302 -1.44049 0.478149 192 192 192 255 
2.51531 -1.50706 0.483275 192 192 192 255 
2.4223 -1.51092 0.494169 192 192 192 255 
2.24966 -1.4927 0.53127 192 192 192 255 
2.0796 -1.47338 0.654997 192 192 192 255 
2.96012 -0.941827 0.284743 192 192 192 255 
2.92879 -1.10747 0.312054 192 192 192 255 
2.8931 -1.30217 0.332049 192 192 192 255 
2.82436 -1.40726 0.355013 192 192 192 255 
2.72113 -1.52042 0.362378 192 192 192 255 
2.54526 -1.5933 0.38631 192 192 192 255 
2.39661 -1.59324 0.389972 192 192 192 255 
2.24349 -1.58478 0.431143 192 192 192 255 
2.0482 -1.58198 0.555832 192 192 192 255 
2.88106 -0.493146 0.521968 192 192 192 255 
2.83544 -0.231101 0.57789 192 192 192 255 
2.91077 -0.638444 0.431191 192 192 192 255 
2.82554 -0.567578 0.552597 192 192 192 255 
2.99307 -0.708434 0.342596 192 192 192 255 
3.04572 -0.767786 0.261741 192 192 192 255 
0.737904 1.60421 0.281713 192 192 192 255 
0.725959 1.47806 0.461804 192 192 192 255 
0.760722 1.20504 0.700545 192 192 192 255 
0.857323 0.985001 0.874029 192 192 192 255 
0.921312 0.755659 0.99933 192 192 192 255 
0.939271 0.379986 1.18587 192 192 192 255 
0.927775 0.195225 1.23304 192 192 192 255 
0.950215 0.042751 1.25619 192 192 192 255 
0.943855 -0.101127 1.27477 192 192 192 255 
0.960321 -0.308052 1.24313 192 192 192 255 
0.97453 -0.525273 1.14035 192 192 192 255 
0.948819 -0.638568 1.10296 192 192 192 255 
0.939974 -0.894739 1.01981 192 192 192 255 
0.956456 -1.0705 0.921063 192 192 192 255 
0.93066 -1.21652 0.831196 192 192 192 255 
0.922703 -1.29603 0.728307 192 192 192 255 
0.912699 -1.45507 0.576185 192 192 192 255 
0.912989 -1.49931 0.419547 192 192 192 255 
1.37322 -0.56462 1.10625 192 192 192 255 
1.25296 -0.928825 1.00164 192 192 192 255 
1.23012 -1.08544 0.894543 192 192 192 255 
1.21916 -1.21834 0.823029 192 192 192 255 
1.19204 -1.33061 0.678707 192 192 192 255 
1.21055 -1.46006 0.576841 192 192 192 255 
1.22342 -1.53266 0.434522 192 192 192 255 
0.223642 1.68407 0.160743 192 192 192 255 
0.23733 1.59575 0.288672 192 192 192 255 
0.289039 1.49645 0.430055 192 192 192 255 
0.305671 1.29842 0.629719 192 192 192 255 
0.243473 1.13408 0.819993 192 192 192 255 
0.316341 0.785311 1.08626 192 192 192 255 
0.539252 0.353984 1.25449 192 192 192 255 
0.53915 0.148262 1.32101 192 192 192 255 
0.516872 -0.020713 1.35663 192 192 192 255 
0.542386 -0.188227 1.37038 192 192 192 255 
0.546875 -0.39094 1.36324 192 192 192 255 
0.550658 -0.633015 1.33131 192 192 192 255 
0.527724 -0.862854 1.25381 192 192 192 255 
0.544825 -1.13312 1.0969 192 192 192 255 
0.530629 -1.31642 0.929842 192 192 192 255 
0.538756 -1.4086 0.764911 192 192 192 255 
0.489819 -1.52495 0.672392 192 192 192 255 
0.480235 -1.63152 0.401961 192 192 192 255 
-0.221516 1.68635 0.151403 192 192 192 255 
-0.267035 1.62706 0.266577 192 192 192 255 
-0.247999 1.56515 0.389142 192 192 192 255 
-0.179548 1.4713 0.544513 192 192 192 255 
-0.192546 1.30553 0.70008 192 192 192 255 
-0.406155 1.00509 0.971088 192 192 192 255 
-0.11519 0.458427 1.3462 192 192 192 255 
0.005537 0.163519 1.47227 192 192 192 255 
0.018086 0.002865 1.5232 192 192 192 255 
0.034087 -0.225059 1.54295 192 192 192 255 
0.010486 -0.502317 1.5763 192 192 192 255 
0.021051 -0.831931 1.51155 192 192 192 255 
-0.04157 -1.14383 1.39518 192 192 192 255 
-0.071941 -1.34699 1.23738 192 192 192 255 
-0.0723 -1.45025 1.0874 192 192 192 255 
-0.063012 -1.58302 0.865082 192 192 192 255 
-0.07847 -1.68827 0.80023 192 192 192 255 
-0.094135 -1.76909 0.556924 192 192 192 255 
-0.112666 -1.80658 0.383324 192 192 192 255 
-0.559706 1.69418 0.186107 192 192 192 255 
-0.557624 1.64128 0.271462 192 192 192 255 
-0.626493 1.58543 0.443136 192 192 192 255 
-0.597781 1.48962 0.641047 192 192 192 255 
-0.674657 1.33301 0.761059 192 192 192 255 
-0.910602 1.20412 0.83774 192 192 192 255 
-0.969076 0.901205 1.14622 192 192 192 255 
-0.752416 0.438132 1.46735 192 192 192 255 
-0.645496 0.179261 1.58432 192 192 192 255 
-0.536767 -0.144454 1.68223 192 192 192 255 
-0.533528 -0.58228 1.70141 192 192 192 255 
-0.505045 -0.913827 1.64561 192 192 192 255 
-0.487217 -1.19352 1.50403 192 192 192 255 
-0.524231 -1.39927 1.31302 192 192 192 255 
-0.526127 -1.495 1.16774 192 192 192 255 
-0.535144 -1.61598 0.920556 192 192 192 255 
-0.564074 -1.7894 0.803191 192 192 192 255 
-0.543078 -1.81047 0.563825 192 192 192 255 
-0.523838 -1.85006 0.388007 192 192 192 255 
-0.894132 1.71265 0.151911 192 192 192 255 
-0.954897 1.67754 0.293034 192 192 192 255 
-1.01777 1.60782 0.541965 192 192 192 255 
-1.04607 1.5091 0.76106 192 192 192 255 
-1.11559 1.39238 0.819623 192 192 192 255 
-1.2789 1.19205 0.946843 192 192 192 255 
-1.20077 0.978822 1.10339 192 192 192 255 
-1.14792 0.807955 1.25419 192 192 192 255 
-1.12072 0.424016 1.45699 192 192 192 255 
-1.07731 0.165008 1.55339 192 192 192 255 
-1.05343 -0.342553 1.69025 192 192 192 255 
-1.07721 -0.869649 1.63314 192 192 192 255 
-1.06127 -1.14188 1.49623 192 192 192 255 
-1.00137 -1.3359 1.35334 192 192 192 255 
-0.952525 -1.44058 1.16865 192 192 192 255 
-0.953236 -1.54594 0.89918 192 192 192 255 
-0.972089 -1.77451 0.76857 192 192 192 255 
-0.977375 -1.79313 0.498747 192 192 192 255 
-1.21556 1.7571 0.133494 192 192 192 255 
-1.22761 1.7091 0.276029 192 192 192 255 
-1.29276 1.65651 0.51403 192 192 192 255 
-1.33849 1.61373 0.725441 192 192 192 255 
-1.40385 1.53306 0.902827 192 192 192 255 
-1.55153 1.40003 1.05019 192 192 192 255 
-1.5529 1.12865 1.15104 192 192 192 255 
-1.45453 0.875045 1.23886 192 192 192 255 
-1.40568 0.573835 1.35218 192 192 192 255 
-1.47959 0.295746 1.44004 192 192 192 255 
-1.4897 -0.024215 1.51099 192 192 192 255 
-1.3955 -0.698702 1.55326 192 192 192 255 
-1.37618 -0.948757 1.45161 192 192 192 255 
-1.40235 -1.12785 1.30905 192 192 192 255 
-1.40766 -1.23603 1.11293 192 192 192 255 
-1.36687 -1.34021 0.907567 192 192 192 255 
-1.37619 -1.66199 0.718954 192 192 192 255 
-1.3865 -1.71844 0.350823 192 192 192 255 
-1.36595 1.76961 0.133901 192 192 192 255 
-1.39633 1.72378 0.267642 192 192 192 255 
-1.4176 1.67618 0.529265 192 192 192 255 
-1.46543 1.65534 0.722125 192 192 192 255 
-1.58219 1.56754 0.982349 192 192 192 255 
-1.72181 1.39126 1.11331 192 192 192 255 
-1.7337 1.08386 1.18149 192 192 192 255 
-1.80742 0.657142 1.20942 192 192 192 255 
-1.79616 0.452382 1.24364 192 192 192 255 
-1.81092 0.287592 1.29226 192 192 192 255 
-1.79513 0.033439 1.37116 192 192 192 255 
-1.80286 -0.282523 1.40131 192 192 192 255 
-1.83786 -0.540871 1.29585 192 192 192 255 
-1.78293 -0.770786 1.17362 192 192 192 255 
-1.75757 -0.945337 1.07583 192 192 192 255 
-1.7823 -1.02058 0.943381 192 192 192 255 
-1.68386 1.78904 0.121501 192 192 192 255 
-1.71443 1.74796 0.247594 192 192 192 255 
-1.74473 1.73485 0.433807 192 192 192 255 
-1.92973 1.61719 0.80639 192 192 192 255 
-1.99612 1.38789 1.0641 192 192 192 255 
-1.98039 1.13404 1.1432 192 192 192 255 
-2.01366 0.810726 1.15883 192 192 192 255 
-2.03019 0.547622 1.18976 192 192 192 255 
-2.02116 0.411979 1.23468 192 192 192 255 
-1.93292 0.232972 1.30459 192 192 192 255 
-1.89739 0.037852 1.3658 192 192 192 255 
-1.95055 -0.275573 1.37703 192 192 192 255 
-2.03365 -0.526012 1.27764 192 192 192 255 
-2.05029 -0.755566 1.11417 192 192 192 255 
-2.04359 -0.875823 1.02888 192 192 192 255 
-2.03341 -0.91003 0.96422 192 192 192 255 
-2.0796 1.81779 0.138375 192 192 192 255 
-2.10017 1.78998 0.229245 192 192 192 255 
-2.13752 1.75318 0.433142 192 192 192 255 
-2.17214 1.62301 0.805318 192 192 192 255 
-2.20579 1.35602 1.08166 192 192 192 255 
-2.29606 1.06281 1.17114 192 192 192 255 
-2.29825 0.768333 1.20388 192 192 192 255 
-2.25628 0.547326 1.2383 192 192 192 255 
-2.1584 0.381542 1.27296 192 192 192 255 
-2.07041 0.207766 1.33511 192 192 192 255 
-2.06479 0.018789 1.41187 192 192 192 255 
-2.18763 -0.375454 1.4069 192 192 192 255 
-2.27634 -0.689823 1.26803 192 192 192 255 
-2.29205 -0.933921 1.12814 192 192 192 255 
-2.30666 -1.11698 0.961238 192 192 192 255 
-2.6729 1.90511 0.067168 192 192 192 255 
-2.69737 1.87129 0.218796 192 192 192 255 
-2.70311 1.82544 0.395127 192 192 192 255 
-2.71525 1.74676 0.604653 192 192 192 255 
-2.71748 1.5768 0.875971 192 192 192 255 
-2.68493 1.26202 1.11049 192 192 192 255 
-2.57229 0.835495 1.25219 192 192 192 255 
-2.53611 0.656633 1.26966 192 192 192 255 
-2.52095 0.559036 1.27362 192 192 192 255 
-2.47375 0.300945 1.31669 192 192 192 255 
-2.43337 0.078222 1.37127 192 192 192 255 
-2.41473 -0.108377 1.39538 192 192 192 255 
-2.38292 -0.41745 1.37504 192 192 192 255 
-2.43051 -0.822313 1.25449 192 192 192 255 
-2.56675 -1.21131 1.1671 192 192 192 255 
-2.76507 -1.56116 1.08431 192 192 192 255 
-3.0531 1.96881 0.051104 192 192 192 255 
-3.07767 1.87111 0.217368 192 192 192 255 
-3.07531 1.846 0.363149 192 192 192 255 
-3.10905 1.78948 0.565323 192 192 192 255 
-3.08565 1.65734 0.784479 192 192 192 255 
-3.02893 1.46152 0.941324 192 192 192 255 
-2.93031 1.10358 1.12588 192 192 192 255 
-2.82583 0.755899 1.20904 192 192 192 255 
-2.79063 0.46881 1.22427 192 192 192 255 
-2.78701 0.264495 1.23735 192 192 192 255 
-2.68702 0.076781 1.29057 192 192 192 255 
-2.64934 -0.241719 1.33964 192 192 192 255 
-2.61647 -0.511373 1.34413 192 192 192 255 
-2.62486 -0.8882 1.26118 192 192 192 255 
-2.72578 -1.21486 1.19038 192 192 192 255 
-2.86258 -1.54689 1.11714 192 192 192 255 
-3.35851 1.81025 0.380095 192 192 192 255 
-3.39538 1.72633 0.55477 192 192 192 255 
-3.33874 1.59893 0.689636 192 192 192 255 
-3.27808 1.43242 0.853958 192 192 192 255 
-3.24477 1.19554 0.910945 192 192 192 255 
-3.19641 0.797564 0.985913 192 192 192 255 
-3.11256 0.457376 1.08482 192 192 192 255 
-3.04465 0.224321 1.16493 192 192 192 255 
-2.97155 0.032038 1.21597 192 192 192 255 
-2.90708 -0.345582 1.28156 192 192 192 255 
-2.90116 -0.619504 1.28406 192 192 192 255 
-2.93766 -1.00275 1.21941 192 192 192 255 
-2.98268 -1.26465 1.1336 192 192 192 255 
-3.06313 -1.44055 1.09093 192 192 192 255 
-3.51972 1.68523 0.31713 192 192 192 255 
-3.52717 1.58351 0.512679 192 192 192 255 
-3.513 1.44805 0.611386 192 192 192 255 
-3.47623 1.2878 0.704766 192 192 192 255 
-3.44215 1.10549 0.762934 192 192 192 255 
-3.37913 0.767915 0.885996 192 192 192 255 
-3.30687 0.379713 0.98762 192 192 192 255 
-3.25118 0.175063 1.05344 192 192 192 255 
-3.16022 -0.018852 1.11363 192 192 192 255 
-3.10113 -0.35476 1.16241 192 192 192 255 
-3.09627 -0.6681 1.14008 192 192 192 255 
-3.12206 -0.998702 1.06501 192 192 192 255 
-3.15021 -1.25959 1.00102 192 192 192 255 
-3.18895 -1.40828 0.963611 192 192 192 255 
-3.73499 1.58943 0.295202 192 192 192 255 
-3.69797 1.4667 0.433432 192 192 192 255 
-3.68462 1.35069 0.501428 192 192 192 255 
-3.65515 1.19094 0.573692 192 192 192 255 
-3.63988 1.01519 0.615203 192 192 192 255 
-3.58287 0.734419 0.697787 192 192 192 255 
-3.50452 0.405574 0.847066 192 192 192 255 
-3.42426 0.158638 0.918279 192 192 192 255 
-3.36541 -0.113447 0.9524 192 192 192 255 
-3.29039 -0.424259 0.984153 192 192 192 255 
-3.23333 -0.683782 1.01551 192 192 192 255 
-3.23809 -0.979377 0.961631 192 192 192 255 
-3.27751 -1.17735 0.9153 192 192 192 255 
-3.31982 -1.36502 0.886015 192 192 192 255 
-3.70974 1.35119 0.211745 192 192 192 255 
-3.70163 1.27265 0.270469 192 192 192 255 
-3.69587 1.15698 0.316829 192 192 192 255 
-3.67243 1.04422 0.364991 192 192 192 255 
-3.66436 0.932851 0.370749 192 192 192 255 
-3.63129 0.701013 0.420276 192 192 192 255 
-3.57038 0.385564 0.52448 192 192 192 255 
-3.52019 0.140164 0.618561 192 192 192 255 
-3.45825 -0.12595 0.731712 192 192 192 255 
-3.40662 -0.343461 0.746456 192 192 192 255 
-3.2837 -0.730967 0.793898 192 192 192 255 
-2.11986 -1.1288 0.97096 192 192 192 255 
-2.0317 -1.09734 0.966701 192 192 192 255 
-2.46284 -1.3055 0.966395 192 192 192 255 
-2.33762 -1.33484 0.966761 192 192 192 255 
-2.16184 -1.32584 0.957465 192 192 192 255 
-2.04206 -1.31298 0.940911 192 192 192 255 
-1.77679 -1.27511 0.914703 192 192 192 255 
-1.70917 -1.28323 0.897427 192 192 192 255 
-1.45666 -1.29553 0.89424 192 192 192 255 
-2.59136 -1.51084 0.88547 192 192 192 255 
-2.41778 -1.55314 0.887222 192 192 192 255 
-2.22392 -1.54127 0.87926 192 192 192 255 
-2.04988 -1.56237 0.829319 192 192 192 255 
-1.77763 -1.47308 0.845827 192 192 192 255 
-1.77893 -1.5502 0.776454 192 192 192 255 
-1.68633 -1.4144 0.869373 192 192 192 255 
-1.59215 -1.40859 0.838483 192 192 192 255 
-1.55223 -1.55508 0.735708 192 192 192 255 
-1.65976 -1.54436 0.788181 192 192 192 255 
-1.19851 -1.4561 0.885435 192 192 192 255 
-1.20069 -1.57757 0.799188 192 192 192 255 
-1.09117 -1.70712 0.727242 192 192 192 255 
-1.22656 -1.65516 0.687343 192 192 192 255 
-1.08964 -1.7572 0.685154 192 192 192 255 
-1.26674 -1.69194 0.557922 192 192 192 255 
-0.812845 -1.78542 0.768511 192 192 192 255 
-0.680046 -1.76832 0.81908 192 192 192 255 
-0.422877 -1.7512 0.823423 192 192 192 255 
-1.10876 -1.77075 0.473033 192 192 192 255 
-1.3051 -1.70846 0.48423 192 192 192 255 
-1.39747 -1.69381 0.570541 192 192 192 255 
-1.48022 -1.6566 0.606638 192 192 192 255 
-1.60162 -1.59332 0.605607 192 192 192 255 
-1.51934 -1.65378 0.501741 192 192 192 255 
-1.40669 -1.69732 0.450399 192 192 192 255 
-1.5762 -1.69632 0.358146 192 192 192 255 
-0.972514 -1.82278 0.372649 192 192 192 255 
-1.76405 -1.76499 0.406586 192 192 192 255 
-1.74779 -1.66761 0.60634 192 192 192 255 
-2.73418 -1.71795 0.749581 192 192 192 255 
-2.50888 -1.71993 0.721675 192 192 192 255 
-2.26705 -1.7539 0.662106 192 192 192 255 
-2.03737 -1.73636 0.656787 192 192 192 255 
-1.88316 -1.82972 0.401567 192 192 192 255 
-1.93603 -1.82962 0.488916 192 192 192 255 
-2.02724 -1.81301 0.555232 192 192 192 255 
-2.12637 -1.8665 0.502895 192 192 192 255 
-2.17655 -1.87382 0.445782 192 192 192 255 
-2.31756 -1.8742 0.470587 192 192 192 255 
-2.44637 -1.89326 0.49411 192 192 192 255 
-2.46678 -1.85768 0.570461 192 192 192 255 
-2.54774 -1.83302 0.609321 192 192 192 255 
-2.64722 -1.84401 0.594347 192 192 192 255 
-2.69997 -1.8504 0.57007 192 192 192 255 
-2.81158 -1.79821 0.712737 192 192 192 255 
-2.7094 -1.87995 0.508775 192 192 192 255 
-2.94173 -1.78743 0.442574 192 192 192 255 
-2.68445 -1.89121 0.447388 192 192 192 255 
-2.61408 -1.905 0.404925 192 192 192 255 
-2.50382 -1.90981 0.431456 192 192 192 255 
-2.14711 -1.9032 0.362462 192 192 192 255 
-2.06273 -1.88425 0.307336 192 192 192 255 
-1.94631 -1.87274 0.344251 192 192 192 255 
-3.12091 -1.70792 0.431829 192 192 192 255 
-3.13939 -1.68748 0.638546 192 192 192 255 
-3.31487 -1.59908 0.439626 192 192 192 255 
-3.3048 -1.58219 0.643445 192 192 192 255 
-3.44209 -1.48412 0.406377 192 192 192 255 
-3.38725 -1.48603 0.672861 192 192 192 255 
-3.55787 -1.32594 0.37803 192 192 192 255 
-3.53391 -1.33045 0.568246 192 192 192 255 
-3.63959 -1.1401 0.3338 192 192 192 255 
-3.63118 -1.15784 0.50561 192 192 192 255 
-3.68652 -0.955181 0.320349 192 192 192 255 
-3.66786 -0.964867 0.464702 192 192 192 255 
-3.6766 -0.729578 0.330724 192 192 192 255 
-3.66577 -0.73408 0.446286 192 192 192 255 
-3.61663 -0.350374 0.338492 192 192 192 255 
-3.59597 -0.346391 0.426453 192 192 192 255 
-3.57024 -0.060093 0.344854 192 192 192 255 
-3.52971 -0.065998 0.437217 192 192 192 255 
-3.53542 0.191408 0.338478 192 192 192 255 
-3.51684 0.149002 0.430359 192 192 192 255 
-3.53665 0.442277 0.322 192 192 192 255 
-3.47078 -0.078218 0.546398 192 192 192 255 
-3.52677 -0.317542 0.560837 192 192 192 255 
-3.56999 -0.731989 0.649435 192 192 192 255 
-3.55012 -0.984868 0.675228 192 192 192 255 
-3.4926 -1.18065 0.692282 192 192 192 255 
-3.33594 -1.36568 0.72459 192 192 192 255 
-3.41565 -0.308965 0.671045 192 192 192 255 
-3.43823 -0.721479 0.728141 192 192 192 255 
-3.3554 -0.969157 0.766213 192 192 192 255 
-3.27979 -1.16207 0.784602 192 192 192 255 
-3.25121 -0.948205 0.819868 192 192 192 255 
-3.55655 0.704883 0.28063 192 192 192 255 
-3.57817 0.837714 0.288502 192 192 192 255 
2.22208 -0.957342 1.01414 192 192 192 255 
2.15859 -0.955809 1.11365 192 192 192 255 
2.05819 -0.931238 1.16352 192 192 192 255 
1.86766 -0.920633 1.20693 192 192 192 255 
1.63514 -0.965221 1.18497 192 192 192 255 
1.53604 -0.985876 1.1856 192 192 192 255 
1.42888 -0.98669 1.13391 192 192 192 255 
1.33788 -0.945716 1.0213 192 192 192 255 
2.17745 -1.12777 0.974416 192 192 192 255 
2.14855 -1.10307 1.06541 192 192 192 255 
2.02469 -1.07465 1.17246 192 192 192 255 
1.83889 -1.0872 1.20141 192 192 192 255 
1.64582 -1.08744 1.17377 192 192 192 255 
1.52441 -1.12531 1.14225 192 192 192 255 
1.43844 -1.14803 1.09807 192 192 192 255 
1.31087 -1.13632 0.914838 192 192 192 255 
2.14127 -1.23464 0.941254 192 192 192 255 
2.09957 -1.26 1.05576 192 192 192 255 
1.9667 -1.22816 1.15372 192 192 192 255 
1.80521 -1.26843 1.16532 192 192 192 255 
1.60172 -1.26236 1.14142 192 192 192 255 
1.49748 -1.2832 1.08826 192 192 192 255 
1.43082 -1.30121 1.02492 192 192 192 255 
1.34822 -1.28206 0.845204 192 192 192 255 
2.11156 -1.37694 0.89657 192 192 192 255 
2.07145 -1.41012 1.00619 192 192 192 255 
1.97422 -1.46921 1.06895 192 192 192 255 
1.80179 -1.46546 1.12928 192 192 192 255 
1.6124 -1.48573 1.09973 192 192 192 255 
1.5167 -1.45305 1.06852 192 192 192 255 
1.45482 -1.43023 0.976569 192 192 192 255 
1.32886 -1.35263 0.758733 192 192 192 255 
1.99408 -2.71305 0.824553 192 192 192 255 
1.95391 -2.46223 0.830594 192 192 192 255 
2.02453 -2.19533 0.811284 192 192 192 255 
2.0477 -2.05014 0.814712 192 192 192 255 
2.05311 -1.73828 0.824853 192 192 192 255 
2.05984 -1.56133 0.858957 192 192 192 255 
1.84128 -2.71601 0.708009 192 192 192 255 
1.93075 -2.46354 0.894743 192 192 192 255 
1.98533 -2.22132 0.893145 192 192 192 255 
2.01309 -2.05191 0.911043 192 192 192 255 
2.02159 -1.75529 0.912093 192 192 192 255 
2.03604 -1.57908 0.967151 192 192 192 255 
1.88097 -2.73324 0.8902 192 192 192 255 
1.86406 -2.46995 0.935601 192 192 192 255 
1.90637 -2.28228 0.964887 192 192 192 255 
1.91864 -2.08365 1.00127 192 192 192 255 
1.94177 -1.75946 0.997454 192 192 192 255 
1.93701 -1.62542 1.02684 192 192 192 255 
1.80113 -2.48469 0.938593 192 192 192 255 
1.81827 -2.31385 0.968652 192 192 192 255 
1.83922 -2.10927 0.998351 192 192 192 255 
1.81885 -1.75698 1.02359 192 192 192 255 
1.80493 -1.58195 1.0892 192 192 192 255 
1.77142 -2.76902 0.9461 192 192 192 255 
1.73762 -2.48502 0.918334 192 192 192 255 
1.71041 -2.27222 0.954296 192 192 192 255 
1.72003 -2.10557 0.971354 192 192 192 255 
1.71714 -1.80953 1.00409 192 192 192 255 
1.65032 -1.64588 1.05335 192 192 192 255 
1.71832 -2.77547 0.921796 192 192 192 255 
1.67899 -2.51314 0.891745 192 192 192 255 
1.64879 -2.28001 0.929365 192 192 192 255 
1.6249 -2.0873 0.963391 192 192 192 255 
1.57298 -1.82759 0.985823 192 192 192 255 
1.54175 -1.64361 1.01419 192 192 192 255 
1.65595 -2.52093 0.844269 192 192 192 255 
1.58632 -2.27375 0.880969 192 192 192 255 
1.5293 -2.09208 0.887353 192 192 192 255 
1.50871 -1.80858 0.934359 192 192 192 255 
1.48063 -1.64013 0.953447 192 192 192 255 
1.66349 -2.48596 0.790773 192 192 192 255 
1.60129 -2.26713 0.787696 192 192 192 255 
1.54409 -2.08072 0.786432 192 192 192 255 
1.47389 -1.81895 0.799576 192 192 192 255 
1.45183 -1.57686 0.702758 192 192 192 255 
1.83067 -2.73612 0.903313 192 192 192 255 
1.75635 -2.4464 0.705428 192 192 192 255 
1.6776 -2.23795 0.696318 192 192 192 255 
1.6434 -2.07658 0.689565 192 192 192 255 
1.59675 -1.72203 0.684655 192 192 192 255 
1.59989 -1.59553 0.623185 192 192 192 255 
1.773 -2.23029 0.64494 192 192 192 255 
1.74767 -2.06752 0.638841 192 192 192 255 
1.74032 -1.67983 0.664098 192 192 192 255 
1.72121 -1.59019 0.601932 192 192 192 255 
1.89857 -3.06827 0.994338 192 192 192 255 
1.91179 -2.89577 0.950117 192 192 192 255 
1.96315 -1.58884 0.612861 192 192 192 255 
1.73457 -2.96588 0.986396 192 192 192 255 
1.80637 -2.94973 0.984058 192 192 192 255 
1.96064 -2.71286 0.90089 192 192 192 255 
2.02137 -2.88173 0.945561 192 192 192 255 
2.0575 -2.88728 0.844225 192 192 192 255 
1.73508 -3.02273 0.972751 192 192 192 255 
1.80239 -3.08962 0.961851 192 192 192 255 
1.72175 -3.11689 0.979111 192 192 192 255 
1.8118 -3.13564 0.933096 192 192 192 255 
1.84827 -2.92726 0.996966 192 192 192 255 
1.97005 -3.14186 1.06518 192 192 192 255 
2.11003 -3.14826 1.06882 192 192 192 255 
2.14888 -3.22162 1.0762 192 192 192 255 
2.03126 -3.25671 1.11112 192 192 192 255 
2.24798 -3.3428 1.12746 192 192 192 255 
2.13877 -3.39768 1.21473 192 192 192 255 
2.3433 -3.50785 1.19526 192 192 192 255 
2.25436 -3.55093 1.23512 192 192 192 255 
2.02547 -3.55684 1.20484 192 192 192 255 
1.98119 -3.44128 1.18053 192 192 192 255 
1.92618 -3.28888 1.09375 192 192 192 255 
1.88644 -3.19174 1.04732 192 192 192 255 
2.28123 -3.33825 1.04348 192 192 192 255 
2.20194 -3.22646 0.996503 192 192 192 255 
2.17004 -3.1345 0.978866 192 192 192 255 
2.09154 -3.03244 0.947029 192 192 192 255 
2.11359 -3.01185 0.851648 192 192 192 255 
2.21737 -3.15609 0.888927 192 192 192 255 
1.84189 -3.246 1.01477 192 192 192 255 
1.86513 -3.35383 1.05498 192 192 192 255 
1.91939 -3.48708 1.11087 192 192 192 255 
1.98062 -3.0439 0.964237 192 192 192 255 
1.70595 -3.00663 0.83263 192 192 192 255 
1.70917 -3.13315 0.80794 192 192 192 255 
1.80641 -3.17334 0.834455 192 192 192 255 
1.83279 -3.29651 0.865078 192 192 192 255 
1.9339 -3.54625 0.912438 192 192 192 255 
2.07893 -3.58499 0.917088 192 192 192 255 
1.83952 -3.40529 0.883488 192 192 192 255 
1.74185 -3.11418 0.700705 192 192 192 255 
1.90048 -3.13193 0.728621 192 192 192 255 
1.92973 -3.29842 0.689538 192 192 192 255 
1.94132 -3.4348 0.701314 192 192 192 255 
2.00274 -3.52342 0.688103 192 192 192 255 
2.12655 -3.54968 0.701005 192 192 192 255 
2.19794 -3.58395 0.936437 192 192 192 255 
2.24415 -3.54556 0.732888 192 192 192 255 
1.77602 -2.98009 0.707575 192 192 192 255 
1.73643 -2.74368 0.736866 192 192 192 255 
1.7008 -2.79479 0.82425 192 192 192 255 
1.85513 -3.08323 0.986129 192 192 192 255 
2.07369 -3.02085 0.782654 192 192 192 255 
2.18749 -3.16154 0.800285 192 192 192 255 
2.00134 -2.84771 0.762517 192 192 192 255 
2.23641 -3.22005 0.89203 192 192 192 255 
2.38683 -3.46222 1.13648 192 192 192 255 
2.32702 -3.35232 0.958234 192 192 192 255 
2.44024 -3.50956 1.01942 192 192 192 255 
2.30936 -3.34547 0.801508 192 192 192 255 
2.37781 -3.48411 0.800332 192 192 192 255 
2.23594 -3.2431 0.823955 192 192 192 255 
1.85747 -2.95072 0.669988 192 192 192 255 
1.9981 -3.03995 0.718855 192 192 192 255 
1.94563 -2.87671 0.703118 192 192 192 255 
1.88432 -2.7244 0.701999 192 192 192 255 
1.97265 -2.72885 0.772496 192 192 192 255 
2.05922 -3.23008 0.674936 192 192 192 255 
2.10799 -3.36357 0.677007 192 192 192 255 
-2.83715 -1.79173 0.921563 192 192 192 255 
-2.68716 -1.53981 0.988048 192 192 192 255 
-2.91829 -1.90418 1.00466 192 192 192 255 
-3.01092 -1.8845 1.08351 192 192 192 255 
-3.11748 -1.86689 1.10803 192 192 192 255 
-2.95505 -1.49684 1.12881 192 192 192 255 
-3.23261 -1.8343 1.08783 192 192 192 255 
-3.358 -1.8118 0.975625 192 192 192 255 
-3.3421 -1.53399 0.921628 192 192 192 255 
-3.36599 -1.48517 0.888076 192 192 192 255 
-3.49052 -1.76042 0.903104 192 192 192 255 
-3.49852 -1.76208 0.762472 192 192 192 255 
-3.1625 -2.55638 1.05841 192 192 192 255 
-3.0787 -2.55398 1.04683 192 192 192 255 
-3.17782 -2.27917 1.04758 192 192 192 255 
-3.06844 -2.2602 1.03507 192 192 192 255 
-3.16949 -2.11004 1.0768 192 192 192 255 
-3.04797 -2.10963 1.0635 192 192 192 255 
-3.20745 -2.10321 1.07137 192 192 192 255 
-3.25154 -2.56405 1.02363 192 192 192 255 
-3.28182 -2.30505 1.00188 192 192 192 255 
-3.32753 -2.07573 1.00533 192 192 192 255 
-3.3473 -2.57363 0.955211 192 192 192 255 
-3.38939 -2.30562 0.950348 192 192 192 255 
-3.45197 -2.07731 0.931974 192 192 192 255 
-3.02282 -2.52224 0.979148 192 192 192 255 
-3.00748 -2.27071 0.984279 192 192 192 255 
-2.96969 -2.09794 0.982836 192 192 192 255 
-2.89244 -1.95081 0.87812 192 192 192 255 
-2.96422 -1.97873 0.776572 192 192 192 255 
-2.98119 -2.14272 0.858353 192 192 192 255 
-3.03061 -2.31122 0.88433 192 192 192 255 
-3.04661 -2.51088 0.900772 192 192 192 255 
-3.0404 -2.15624 0.808208 192 192 192 255 
-3.12076 -2.15777 0.766432 192 192 192 255 
-3.14401 -2.33364 0.829994 192 192 192 255 
-3.06602 -1.95312 0.719516 192 192 192 255 
-3.00832 -1.75927 0.655672 192 192 192 255 
-3.211 -1.8504 0.700723 192 192 192 255 
-3.25331 -2.13735 0.760713 192 192 192 255 
-3.23587 -2.33534 0.820588 192 192 192 255 
-3.24055 -2.55547 0.856262 192 192 192 255 
-3.13277 -2.52867 0.848639 192 192 192 255 
-3.38126 -1.82819 0.697034 192 192 192 255 
-3.4227 -2.0708 0.773898 192 192 192 255 
-3.33949 -2.32815 0.827572 192 192 192 255 
-3.29789 -2.54902 0.861657 192 192 192 255 
-3.46375 -2.07989 0.844667 192 192 192 255 
-3.41207 -2.35611 0.865813 192 192 192 255 
-3.37207 -2.56916 0.904785 192 192 192 255 
1.92188 -2.15762 0.692678 192 192 192 255 
1.99189 -1.7484 0.65277 192 192 192 255 
1.94521 -2.01577 0.672724 192 192 192 255 
1.94726 -2.44323 0.732587 192 192 192 255 
1.82866 -2.47735 0.67347 192 192 192 255 
2.06938 1.72782 0.212746 192 192 192 255 
-2.29936 -1.02545 1.04469 192 192 192 255 
-3.22329 -3.00178 1.12618 192 192 192 255 
-3.26181 -2.82107 1.08822 192 192 192 255 
-3.32033 -2.82751 1.06391 192 192 192 255 
-3.30242 -3.01792 1.12851 192 192 192 255 
-2.98635 -2.93377 1.08768 192 192 192 255 
-3.05327 -2.7649 1.04301 192 192 192 255 
-3.14107 -2.78529 1.03232 192 192 192 255 
-3.10711 -2.94782 1.09223 192 192 192 255 
-2.94653 -2.93933 0.986343 192 192 192 255 
-3.01642 -2.76509 0.966671 192 192 192 255 
-3.30186 -3.07478 1.11487 192 192 192 255 
-3.31655 -3.16893 1.12123 192 192 192 255 
-3.22768 -3.14166 1.10397 192 192 192 255 
-3.21731 -3.18769 1.07521 192 192 192 255 
-2.97544 -3.30875 1.25324 192 192 192 255 
-2.84582 -3.27366 1.21832 192 192 192 255 
-2.88863 -3.2003 1.21093 192 192 192 255 
-3.0429 -3.19391 1.2073 192 192 192 255 
-2.85696 -3.44973 1.35684 192 192 192 255 
-2.7366 -3.39485 1.26958 192 192 192 255 
-2.72957 -3.60298 1.37724 192 192 192 255 
-2.63155 -3.55989 1.33738 192 192 192 255 
-3.03063 -3.49333 1.32265 192 192 192 255 
-2.98182 -3.60889 1.34696 192 192 192 255 
-3.09125 -3.34092 1.23586 192 192 192 255 
-3.13504 -3.24379 1.18944 192 192 192 255 
-2.78734 -3.2785 1.13862 192 192 192 255 
-2.69996 -3.3903 1.18559 192 192 192 255 
-2.8225 -3.18655 1.12098 192 192 192 255 
-2.77033 -3.20814 1.03104 192 192 192 255 
-2.88471 -3.0639 0.993766 192 192 192 255 
-2.90901 -3.08448 1.08915 192 192 192 255 
-3.15852 -3.40587 1.1971 192 192 192 255 
-3.18414 -3.29805 1.15689 192 192 192 255 
-3.09873 -3.53912 1.25299 192 192 192 255 
-3.03125 -3.09594 1.10635 192 192 192 255 
-3.19651 -2.78817 1.04543 192 192 192 255 
-3.17711 -2.97931 1.13908 192 192 192 255 
-3.33041 -3.18519 0.950058 192 192 192 255 
-3.33395 -3.05867 0.974748 192 192 192 255 
-3.22325 -3.22539 0.976573 192 192 192 255 
-3.19417 -3.34855 1.0072 192 192 192 255 
-2.92291 -3.63704 1.05921 192 192 192 255 
-3.08274 -3.5983 1.05456 192 192 192 255 
-3.18675 -3.45734 1.02561 192 192 192 255 
-3.11957 -3.18398 0.870739 192 192 192 255 
-3.29439 -3.16622 0.842823 192 192 192 255 
-3.08734 -3.35046 0.831656 192 192 192 255 
-3.07456 -3.48685 0.843432 192 192 192 255 
-3.00687 -3.57546 0.830221 192 192 192 255 
-2.87042 -3.60172 0.843123 192 192 192 255 
-2.74082 -3.5976 0.875006 192 192 192 255 
-2.79175 -3.63599 1.07855 192 192 192 255 
-3.25673 -3.03213 0.849693 192 192 192 255 
-3.33964 -2.84684 0.966368 192 192 192 255 
-3.30037 -2.79573 0.878984 192 192 192 255 
-3.12167 -3.12032 1.13646 192 192 192 255 
-3.16955 -3.13527 1.12825 192 192 192 255 
-2.80326 -3.21358 0.942403 192 192 192 255 
-2.92868 -3.07289 0.924772 192 192 192 255 
-3.00841 -2.89976 0.904635 192 192 192 255 
-2.74936 -3.2721 1.03415 192 192 192 255 
-2.58358 -3.51427 1.2786 192 192 192 255 
-2.52472 -3.56161 1.16154 192 192 192 255 
-2.64949 -3.40436 1.10035 192 192 192 255 
-2.59351 -3.53615 0.94245 192 192 192 255 
-2.66896 -3.39751 0.943626 192 192 192 255 
-2.74987 -3.29515 0.966073 192 192 192 255 
-3.16697 -3.00277 0.812106 192 192 192 255 
-3.06981 -2.92876 0.845236 192 192 192 255 
-3.01199 -3.092 0.860973 192 192 192 255 
-3.18481 -2.76805 0.850127 192 192 192 255 
-3.13738 -2.77645 0.844117 192 192 192 255 
-3.04004 -2.78089 0.914614 192 192 192 255 
-2.94462 -3.28212 0.817054 192 192 192 255 
-2.89089 -3.41562 0.819125 192 192 192 255 
-3.67645 -0.551317 0.077574 192 192 192 255 
-3.69978 -0.759901 0.088664 192 192 192 255 
-3.69789 -0.951955 0.098793 192 192 192 255 
-3.66654 -1.14037 0.078261 192 192 192 255 
-3.6397 -1.24235 0.05719 192 192 192 255 
-3.58196 -1.41395 -0.104371 192 192 192 255 
-3.68307 -1.59197 -0.115233 192 192 192 255 
-3.82849 -1.78656 -0.114095 192 192 192 255 
-3.74063 -0.558176 0.085478 192 192 192 255 
-3.72947 -0.869371 0.096946 192 192 192 255 
-3.73377 -1.14192 0.111139 192 192 192 255 
-3.74375 -1.36722 0.100951 192 192 192 255 
-3.82364 -1.55753 0.081533 192 192 192 255 
-3.89039 -1.7501 0.017612 192 192 192 255 
-3.77891 -0.541975 0.064258 192 192 192 255 
-3.80584 -0.798961 0.099237 192 192 192 255 
-3.84326 -0.981402 0.116282 192 192 192 255 
-3.88459 -1.26147 0.148322 192 192 192 255 
-3.91401 -1.48685 0.149147 192 192 192 255 
-4.01531 -1.65995 0.130331 192 192 192 255 
-4.10719 -1.83652 0.120149 192 192 192 255 
-3.8186 -0.52269 0.055572 192 192 192 255 
-3.90096 -0.780883 0.091579 192 192 192 255 
-3.94981 -0.963797 0.140806 192 192 192 255 
-3.9745 -1.1696 0.164243 192 192 192 255 
-4.01887 -1.41319 0.154149 192 192 192 255 
-4.15433 -1.67783 0.165852 192 192 192 255 
-4.20757 -1.92282 0.155104 192 192 192 255 
-3.8962 -0.629183 0.077883 192 192 192 255 
-3.97812 -0.82344 0.09928 192 192 192 255 
-4.02973 -1.04324 0.136305 192 192 192 255 
-4.12929 -1.22879 0.120745 192 192 192 255 
-4.18415 -1.59808 0.151191 192 192 192 255 
-4.29777 -1.8899 0.177707 192 192 192 255 
-3.93249 -0.556566 0.037354 192 192 192 255 
-4.07074 -0.947648 0.110554 192 192 192 255 
-4.22764 -1.2279 0.069894 192 192 192 255 
-4.22916 -1.47309 0.11156 192 192 192 255 
-4.30974 -1.74385 0.150329 192 192 192 255 
-4.40536 -1.92144 0.192978 192 192 192 255 
-3.97534 -0.554961 -0.014407 192 192 192 255 
-4.11245 -0.875765 0.016326 192 192 192 255 
-4.23383 -1.16654 0.022074 192 192 192 255 
-4.33383 -1.54825 0.056938 192 192 192 255 
-4.42412 -1.83174 0.130839 192 192 192 255 
-4.44584 -2.01513 0.189702 192 192 192 255 
-3.92187 -0.538502 -0.145307 192 192 192 255 
-4.04272 -0.87671 -0.168968 192 192 192 255 
-4.2163 -1.16085 -0.104034 192 192 192 255 
-4.25268 -1.43785 -0.14562 192 192 192 255 
-4.33133 -1.69259 -0.043593 192 192 192 255 
-4.38715 -1.96781 0.045602 192 192 192 255 
-3.91055 -0.601719 -0.163159 192 192 192 255 
-3.98814 -0.962789 -0.223649 192 192 192 255 
-4.11193 -1.33314 -0.26716 192 192 192 255 
-4.2019 -1.66855 -0.214859 192 192 192 255 
-4.27307 -1.79888 -0.099878 192 192 192 255 
-4.35154 -1.94767 0.02502 192 192 192 255 
-3.87362 -0.759035 -0.197169 192 192 192 255 
-3.91788 -1.08283 -0.289171 192 192 192 255 
-4.0015 -1.3757 -0.285641 192 192 192 255 
-4.07309 -1.64949 -0.238382 192 192 192 255 
-4.17576 -1.80822 -0.140659 192 192 192 255 
-4.32127 -1.96349 0.025072 192 192 192 255 
-3.74261 -0.729374 -0.149361 192 192 192 255 
-3.77771 -1.05141 -0.240495 192 192 192 255 
-3.82037 -1.23914 -0.269807 192 192 192 255 
-4.00002 -1.56751 -0.27535 192 192 192 255 
-3.97766 -1.75084 -0.184909 192 192 192 255 
-4.07503 -1.9044 -0.041324 192 192 192 255 
-4.19249 -1.95385 0.017313 192 192 192 255 
-3.86074 -0.188349 -0.024962 192 192 192 255 
-3.82863 0.149083 0 192 192 192 255 
-3.84599 -0.18882 0.019164 192 192 192 255 
-3.81743 0.150343 0.048629 192 192 192 255 
-3.84447 0.498176 0.053132 192 192 192 255 
-3.88734 1.00387 0.057635 192 192 192 255 
-3.86082 1.47972 0.062137 192 192 192 255 
-3.69893 1.78794 0.06664 192 192 192 255 
-3.46972 1.9615 0.071141 192 192 192 255 
-3.23822 2.0054 0.075645 192 192 192 255 
-3.80569 -0.190106 0.051472 192 192 192 255 
-3.78682 0.153783 0.084233 192 192 192 255 
-3.81119 0.501935 0.092033 192 192 192 255 
-3.85121 1.00759 0.099831 192 192 192 255 
-3.82169 1.47799 0.107631 192 192 192 255 
-3.66093 1.77004 0.115431 192 192 192 255 
-3.4459 1.92351 0.123229 192 192 192 255 
-3.2275 1.96174 0.131029 192 192 192 255 
-3.75063 -0.191863 0.063305 192 192 192 255 
-3.74501 0.158482 0.097274 192 192 192 255 
-3.76574 0.50707 0.106281 192 192 192 255 
-3.80184 1.01267 0.115288 192 192 192 255 
-3.76824 1.47562 0.124295 192 192 192 255 
-3.60902 1.74559 0.133304 192 192 192 255 
-3.41337 1.8716 0.142309 192 192 192 255 
-3.69556 -0.19362 0.051497 192 192 192 255 
-3.70319 0.163182 0.084262 192 192 192 255 
-3.72027 0.512205 0.092064 192 192 192 255 
-3.75247 1.01775 0.099865 192 192 192 255 
-3.71479 1.47325 0.107668 192 192 192 255 
-3.5571 1.72113 0.11547 192 192 192 255 
-3.38084 1.81969 0.123273 192 192 192 255 
-3.65524 -0.194907 0.019209 192 192 192 255 
-3.67256 0.166625 0.048678 192 192 192 255 
-3.68697 0.515966 0.053185 192 192 192 255 
-3.71631 1.02147 0.057693 192 192 192 255 
-3.67564 1.47151 0.062201 192 192 192 255 
-3.51909 1.70322 0.066709 192 192 192 255 
-3.35701 1.78167 0.071216 192 192 192 255 
-3.64046 -0.195379 -0.024909 192 192 192 255 
-3.66133 0.167886 5.8e-05 192 192 192 255 
-3.65517 -0.194909 -0.069044 192 192 192 255 
-3.67251 0.16663 -0.048579 192 192 192 255 
-3.69545 -0.193624 -0.101369 192 192 192 255 
-3.7031 0.163192 -0.084205 192 192 192 255 
-3.7505 -0.191867 -0.11323 192 192 192 255 
-3.74491 0.158493 -0.097274 192 192 192 255 
-3.80557 -0.190109 -0.101447 192 192 192 255 
-3.78674 0.153792 -0.084291 192 192 192 255 
-3.84592 -0.188822 -0.06918 192 192 192 255 
-3.81738 0.150348 -0.048728 192 192 192 255 
-3.56939 -0.761644 -0.035893 192 192 192 255 
-1.93357 -1.99303 0.438902 192 192 192 255 
-1.97106 -1.99296 0.500845 192 192 192 255 
-2.03574 -1.98118 0.547873 192 192 192 255 
-2.10604 -2.01911 0.510759 192 192 192 255 
-2.14162 -2.0243 0.470257 192 192 192 255 
-2.12075 -2.04514 0.411171 192 192 192 255 
-2.0609 -2.0317 0.372079 192 192 192 255 
-1.97834 -2.02354 0.398257 192 192 192 255 
-2.49914 -2.03809 0.504529 192 192 192 255 
-2.51361 -2.01286 0.558673 192 192 192 255 
-2.57102 -1.99538 0.58623 192 192 192 255 
-2.64157 -2.00316 0.575611 192 192 192 255 
-2.67897 -2.00769 0.558395 192 192 192 255 
-2.68566 -2.02865 0.514928 192 192 192 255 
-2.66797 -2.03663 0.471396 192 192 192 255 
-2.61807 -2.04642 0.441284 192 192 192 255 
-2.53987 -2.04982 0.460098 192 192 192 255 
-1.98512 -2.11666 0.394256 192 192 192 255 
-2.06565 -2.12462 0.36872 192 192 192 255 
-2.12403 -2.13773 0.406853 192 192 192 255 
-2.14439 -2.11741 0.464489 192 192 192 255 
-2.10968 -2.11234 0.503997 192 192 192 255 
-2.04111 -2.07535 0.540201 192 192 192 255 
-1.97802 -2.08683 0.494327 192 192 192 255 
-1.94144 -2.0869 0.433904 192 192 192 255 
-2.51319 -2.13086 0.49792 192 192 192 255 
-2.55292 -2.1423 0.454579 192 192 192 255 
-2.6292 -2.13898 0.436227 192 192 192 255 
-2.67788 -2.12944 0.4656 192 192 192 255 
-2.69514 -2.12165 0.508064 192 192 192 255 
-2.68861 -2.10121 0.550465 192 192 192 255 
-2.65212 -2.09679 0.567258 192 192 192 255 
-2.5833 -2.08919 0.577616 192 192 192 255 
-2.5273 -2.10625 0.550735 192 192 192 255 
-2.04868 -2.16528 0.450843 192 192 192 255 
-2.60328 -2.1768 0.510638 192 192 192 255 
4.89781 1.94679 0.628057 192 192 192 255 
4.92539 1.95523 0.618837 192 192 192 255 
4.95374 1.95258 0.592256 192 192 192 255 
4.97187 1.92408 0.586026 192 192 192 255 
4.9534 1.90794 0.605609 192 192 192 255 
4.9255 1.91781 0.613413 192 192 192 255 
4.97313 1.99278 0.533466 192 192 192 255 
5.0019 1.9144 0.486724 192 192 192 255 
4.98236 1.8733 0.53619 192 192 192 255 
4.92619 1.85981 0.582137 192 192 192 255 
4.85258 1.88972 0.605031 192 192 192 255 
4.82475 1.94684 0.626358 192 192 192 255 
4.86161 2.00164 0.621913 192 192 192 255 
4.93556 2.01602 0.5857 192 192 192 255 
4.76092 1.88136 0.61312 192 192 192 255 
4.86162 1.85407 0.618095 192 192 192 255 
4.84288 2.02133 0.638025 192 192 192 255 
4.93588 2.05167 0.572853 192 192 192 255 
4.99175 2.00982 0.523206 192 192 192 255 
5.01143 1.87557 0.463205 192 192 192 255 
4.94471 1.84066 0.575374 192 192 192 255 
4.99171 1.8443 0.520761 192 192 192 255 
4.90802 1.79604 0.587882 192 192 192 255 
4.85258 1.81612 0.603105 192 192 192 255 
4.96355 1.78316 0.553515 192 192 192 255 
4.98303 1.80634 0.505779 192 192 192 255 
4.91847 2.08472 0.532713 192 192 192 255 
4.96494 2.05358 0.499903 192 192 192 255 
5.02008 1.97817 0.480978 192 192 192 255 
4.826 2.08918 0.576083 192 192 192 255 
4.88157 2.09457 0.539949 192 192 192 255 
4.78848 2.02805 0.608619 192 192 192 255 
4.75152 2.03966 0.634134 192 192 192 255 
4.7983 2.11819 0.591085 192 192 192 255 
4.87254 2.15926 0.542891 192 192 192 255 
4.92789 2.15656 0.516579 192 192 192 255 
5.00244 2.10575 0.468233 192 192 192 255 
5.0575 2.00275 0.451974 192 192 192 255 
5.07599 1.901 0.443793 192 192 192 255 
5.03029 1.82742 0.440803 192 192 192 255 
4.9919 1.76083 0.510386 192 192 192 255 
4.93607 1.73767 0.557276 192 192 192 255 
4.87115 1.74124 0.592326 192 192 192 255 
4.81618 1.79786 0.604026 192 192 192 255 
5.09538 1.96124 0.401516 192 192 192 255 
5.08581 1.8885 0.408327 192 192 192 255 
5.05818 1.78819 0.417387 192 192 192 255 
5.01984 1.73991 0.485562 192 192 192 255 
4.91797 1.68148 0.544201 192 192 192 255 
4.86264 1.68414 0.570155 192 192 192 255 
4.75234 1.72339 0.591296 192 192 192 255 
4.69761 1.76806 0.576663 192 192 192 255 
5.03064 2.1022 0.432329 192 192 192 255 
5.0672 2.0277 0.422291 192 192 192 255 
4.93795 2.18115 0.486939 192 192 192 255 
4.88186 2.19454 0.530288 192 192 192 255 
4.80779 2.14365 0.570393 192 192 192 255 
4.72896 2.03615 0.614307 192 192 192 255 
4.74236 1.88223 0.62165 192 192 192 255 
4.74405 2.17934 0.556057 192 192 192 255 
4.68811 2.04638 0.604518 192 192 192 255 
4.83733 2.23568 0.479332 192 192 192 255 
4.89385 2.22052 0.417713 192 192 192 255 
4.99598 2.14879 0.344534 192 192 192 255 
5.06084 2.05333 0.309324 192 192 192 255 
5.09706 1.95421 0.328795 192 192 192 255 
5.10559 1.86409 0.347113 192 192 192 255 
4.69702 1.86258 0.604048 192 192 192 255 
4.73944 2.29917 0.369987 192 192 192 255 
4.83289 2.26273 0.283787 192 192 192 255 
4.97139 2.14669 0.224781 192 192 192 255 
5.07217 2.04363 0.209228 192 192 192 255 
5.12716 1.94276 0.211214 192 192 192 255 
5.1527 1.83066 0.287042 192 192 192 255 
5.13317 1.71556 0.334258 192 192 192 255 
5.10343 1.6244 0.434275 192 192 192 255 
4.98282 1.50307 0.507606 192 192 192 255 
4.92728 1.48695 0.526327 192 192 192 255 
4.79841 1.47315 0.570618 192 192 192 255 
4.71565 1.5022 0.584339 192 192 192 255 
4.61541 1.63964 0.577768 192 192 192 255 
4.56075 1.78515 0.562428 192 192 192 255 
4.55148 1.84175 0.575191 192 192 192 255 
4.53311 1.98901 0.578975 192 192 192 255 
4.63658 2.26338 0.471997 192 192 192 255 
4.5613 2.13307 0.547248 192 192 192 255 
5.15664 1.9429 0.119993 192 192 192 255 
5.21882 1.80355 0.199306 192 192 192 255 
5.21686 1.63664 0.279797 192 192 192 255 
5.23318 1.44246 0.362988 192 192 192 255 
4.67912 1.43843 0.589658 192 192 192 255 
4.59648 1.51299 0.598982 192 192 192 255 
4.56002 1.60402 0.589333 192 192 192 255 
4.47778 1.68786 0.597407 192 192 192 255 
4.45968 1.77888 0.588185 192 192 192 255 
4.43261 1.87887 0.577888 192 192 192 255 
4.43302 2.02471 0.563794 192 192 192 255 
4.635 2.36912 0.140117 192 192 192 255 
4.57757 2.38953 0.256196 192 192 192 255 
4.47235 2.32513 0.443764 192 192 192 255 
4.38948 2.19042 0.47332 192 192 192 255 
5.22319 1.37149 0.388069 192 192 192 255 
5.15832 1.23677 0.418043 192 192 192 255 
4.95536 1.23672 0.50523 192 192 192 255 
4.7616 1.36301 0.57137 192 192 192 255 
5.32114 1.79556 0.119606 192 192 192 255 
5.42181 1.68535 0.123555 192 192 192 255 
5.38321 1.61966 0.202452 192 192 192 255 
5.37313 1.54114 0.246712 192 192 192 255 
5.33433 1.40271 0.332639 192 192 192 255 
5.29696 1.32244 0.357984 192 192 192 255 
5.26065 1.18417 0.352062 192 192 192 255 
5.25048 1.12303 0.385234 192 192 192 255 
4.99171 1.1631 0.504149 192 192 192 255 
4.73366 1.22737 0.592883 192 192 192 255 
4.64155 1.28542 0.622034 192 192 192 255 
4.52225 1.39828 0.644892 192 192 192 255 
4.431 1.53575 0.638888 192 192 192 255 
4.40422 1.66243 0.61661 192 192 192 255 
4.38638 1.77087 0.596666 192 192 192 255 
4.3771 1.87171 0.595743 192 192 192 255 
5.60489 1.54609 0.113773 192 192 192 255 
5.56634 1.49868 0.190905 192 192 192 255 
5.52819 1.44018 0.250666 192 192 192 255 
5.47193 1.34518 0.313899 192 192 192 255 
5.42578 1.26437 0.329687 192 192 192 255 
5.39797 1.17424 0.346802 192 192 192 255 
5.38845 1.11942 0.351883 192 192 192 255 
5.68704 1.49964 0.110765 192 192 192 255 
5.74178 1.46396 0.124891 192 192 192 255 
5.73043 1.43567 0.209848 192 192 192 255 
5.68519 1.4522 0.188749 192 192 192 255 
5.64719 1.39461 0.257833 192 192 192 255 
5.71015 1.36065 0.290072 192 192 192 255 
5.60897 1.31787 0.319719 192 192 192 255 
5.68173 1.2825 0.333871 192 192 192 255 
5.56325 1.2353 0.317238 192 192 192 255 
5.67219 1.16477 0.35408 192 192 192 255 
5.5808 1.17413 0.351054 192 192 192 255 
5.47963 1.11131 0.364188 192 192 192 255 
5.84209 1.42771 0.130724 192 192 192 255 
5.91503 1.38216 0.13682 192 192 192 255 
5.88683 1.38567 0.172365 192 192 192 255 
5.81322 1.41558 0.195261 192 192 192 255 
5.97936 1.32553 0.125337 192 192 192 255 
5.94138 1.33082 0.178936 192 192 192 255 
5.78373 1.34147 0.28459 192 192 192 255 
5.84799 1.31157 0.261476 192 192 192 255 
5.93147 1.23348 0.215613 192 192 192 255 
5.99809 1.23187 0.107334 192 192 192 255 
5.96169 1.11098 0.090324 192 192 192 255 
5.9346 1.0548 0.077039 192 192 192 255 
5.89776 1.00931 0.080583 192 192 192 255 
5.87863 0.986485 0.128292 192 192 192 255 
5.92381 1.02528 0.153084 192 192 192 255 
5.95068 1.08273 0.175648 192 192 192 255 
5.80078 1.0786 0.31945 192 192 192 255 
5.88486 1.0622 0.249545 192 192 192 255 
5.85775 0.997026 0.236768 192 192 192 255 
5.75528 1.00415 0.307505 192 192 192 255 
5.76395 1.06211 0.338641 192 192 192 255 
5.91215 1.11791 0.254197 192 192 192 255 
5.95946 1.15723 0.187097 192 192 192 255 
5.75751 0.9579 0.210732 192 192 192 255 
5.675 0.950754 0.22796 192 192 192 255 
5.83787 1.14149 0.305184 192 192 192 255 
5.77341 1.22586 0.323025 192 192 192 255 
5.76477 1.27982 0.308562 192 192 192 255 
5.8959 1.18273 0.164705 192 192 192 255 
5.84979 1.19348 0.181047 192 192 192 255 
5.80342 1.26079 0.210002 192 192 192 255 
5.84066 1.22194 0.187128 192 192 192 255 
5.67239 1.00769 0.341778 192 192 192 255 
5.5738 0.952578 0.243886 192 192 192 255 
5.58073 0.99933 0.349867 192 192 192 255 
5.53518 0.98018 0.341257 192 192 192 255 
5.69012 1.09292 0.37085 192 192 192 255 
5.68109 1.05496 0.35586 192 192 192 255 
5.59828 1.09474 0.386994 192 192 192 255 
5.47078 1.00957 0.355371 192 192 192 255 
5.58022 1.04747 0.372696 192 192 192 255 
5.42535 1.03597 0.34272 192 192 192 255 
